# 3D point list with one line of data per point:
#   POINT3D_ID, X, Y, Z, R, G, B, ERROR, TRACK[] as (IMAGE_ID, POINT2D_IDX)
# Number of points: 377, mean track length: 4.9309073265405141
6605 6.5869487449289243 2.9211612612878097 5.9752954845609096 27 26 26 2.0388731452424005 27 118 28 180 29 179
4900 -0.19253796569492865 1.7303625851072078 1.2507054800811295 89 87 92 0.97324419192861977 77 556 75 406 74 402 73 405 67 282 70 301 71 278 69 294 72 287 66 264 61 301 68 400 64 579 60 387 62 380 65 499 59 332 63 408 58 339 57 312 56 323 55 355
5719 -0.56275606408270062 1.3546706943401994 0.6603427200818891 158 160 155 0.41352663968997999 70 629 72 454
4902 -0.19537798756679728 1.7397176094787932 1.200996911427483 95 99 102 0.69880618042288367 77 792 75 409 74 845 73 692 67 718 70 991 69 733
5568 0.11778523535981587 1.0692665008593063 0.96535003720459567 191 202 208 1.6592203088028943 73 822 70 870 71 632 72 568
5713 -0.38661415339107547 1.4399021243882073 1.0528860081999896 93 87 87 1.4982972799163674 70 409 71 502 72 490
4903 -0.25408208298122498 1.7869622697371459 1.0713225178345835 81 72 77 1.8404952428174581 76 375 77 546 75 411 74 414 73 680 67 936
6593 -0.5189293882209981 1.658313251816024 0.81545034097115054 46 40 36 1.7342771225132438 26 236 28 415 18 548 19 340 24 337 25 256 17 486
7254 -1.2821055246972657 6.3999276847724422 -4.1940220357907156 31 28 38 1.1923372622591424 61 775 66 715 68 748 64 909 65 650 63 753
4904 0.46128329442959159 1.5126968915239229 0.82432640786903588 140 95 98 0.30038901720577216 77 559 74 601
7771 -0.17540534831342761 1.1601159328929995 0.31304144841405118 117 97 77 0.42505483922806681 60 845 62 759 59 790
4906 -0.40650277558080239 1.7073451019989054 0.97052203078921284 33 29 28 0.22787661118530866 77 521 75 431 71 472 72 514
4910 0.28627483763979844 1.1495560477471347 1.2179424183912264 241 255 255 0.54756052103500119 76 397 77 514 75 449
5576 -0.38180019333456283 1.5820760713809428 1.2088546244282563 74 70 71 0.66534303534050721 67 929 70 929 71 817 69 747 66 1018 68 1009 60 1097
5721 0.22301736070137679 1.075592224697046 0.6836162355838924 94 91 82 0.73837255373836108 70 703 71 550 72 457
4911 0.28870878538773076 1.1600843514711114 1.1936584884598846 242 255 255 1.8021675012122635 77 513 75 450 74 873 73 902 67 824 76 696 70 1023 71 844 81 925 78 576
4915 0.23782283240508562 1.1116739678574239 1.1580861740692401 87 100 116 0.5116818574574592 77 494 75 468 74 636 73 488
5282 -0.24161682888432554 1.7038117831726858 1.2470657830515943 135 136 140 1.174436067682272 77 946 73 686 67 672 70 564 71 719 69 605 66 899 61 898 68 881 64 1007 60 914 62 809 59 851 63 849 58 762 57 664 56 660
6621 -0.057204557097615523 1.1454051467637236 0.55616643620801876 120 120 108 0.085117950373759577 27 470 29 502 30 459
4916 0.14796885057798737 1.1173107316219861 1.1241447202417056 83 97 110 0.56720576645126175 77 184 75 474
5799 -0.24304973221396117 1.7794732090503032 1.0910647803627489 138 137 142 1.4612060891593255 70 799 71 933 69 603 72 699
6614 6.1157974365444359 2.7832403456825152 5.8618545131098632 63 55 47 1.0896311881150444 26 317 34 572
4918 0.18962171856190743 1.0912889365692768 1.0814244155649009 238 250 255 1.6454050194776471 75 477 74 445 73 447 67 422 71 520 77 787
5584 -0.13671203212117444 1.8001979539659703 1.191319632772315 104 98 100 0.55888127187944769 67 896 70 1002 71 734
5793 -0.23422746870861921 1.1488156137262409 0.81858170808901176 169 166 157 1.4682419666412747 73 144 71 86
4919 0.17380866133150416 1.0763130948134614 1.0899224539651642 133 135 130 0.59332345537398057 77 471 75 480 74 449
6609 -0.49335748038175381 1.6608160234618352 1.2427552914297888 57 53 50 1.0526783999361105 26 233 28 256 29 262
7334 -0.1513225952034925 2.1654622455674928 0.34459870283880484 22 20 22 1.0439475896275536 68 86 64 12
4920 0.15832796394675366 1.0855851349911338 1.0229455578973119 238 251 255 1.8877575407501261 77 467 75 481 74 488 73 509 70 722 69 536
7851 0.1570166457923132 1.0659578963284047 0.69741985813000218 101 99 87 1.7716022287518853 61 1108 68 586 65 649
4923 0.11099050939931848 1.0708282700751643 0.89806230539027565 98 101 106 0.53456234801214009 76 468 75 497 74 735 77 848 73 748
5290 0.094148145593576857 1.0321723297653234 0.94203894372234087 189 203 213 1.4365246870685833 77 1573 73 746 67 772 70 712
4924 0.11430966043075054 1.0338435557563079 1.0009270917248105 100 107 110 0.261312061286953 77 623 75 498 74 499
5807 0.32070681191624595 0.97076968025653776 0.57177048821333976 45 49 48 0.33205490948738758 67 27 69 28
4925 0.10986082249198396 1.0327193188129318 0.99013000351170666 138 143 139 0.40993561421662805 77 620 75 500 74 501 73 528
5599 -0.37814883382234216 1.8680945095067005 0.94158523133962635 102 102 104 1.073820933958465 74 903 70 1115
4926 0.15103882200733271 1.053880941139836 0.86703758324764502 156 138 115 0.58128131167654618 76 460 77 619 75 501
5592 -4.4719488867544808 3.5712875776826136 -0.66858781989289462 130 130 118 1.9674386254524738 67 878 70 1049
5801 1.8700419728629152 0.11983483779720536 1.4299672260441476 107 107 107 1.5329131283252506 71 545 69 3
12019 0.89505044634867093 1.7164783291890036 0.22050367625457926 62 65 70 2.1667538680265572 4 92 16 393
4928 0.087943534293928996 1.0172438101415231 0.96136851697150238 102 111 112 0.41678734969003078 76 456 77 614 75 511 74 475 73 534
4929 -0.015875452737327645 0.9979517321341651 0.37290971663934103 204 205 201 0.50006789910995308 79 192 74 302 73 289
4930 0.055380576820831189 1.0144223242700068 0.93172787039898142 139 143 144 1.7584556398895355 77 609 75 520 74 393 73 483 72 239
7933 -0.34612189537204258 1.5240683596589024 0.93164953028053898 109 108 106 0.18342679072931614 62 872 59 666 63 785
4931 0.060376201476289734 1.0486300722636768 0.79522647919728595 147 147 145 0.47279343182657158 77 706 75 521 74 519 73 546
5362 -6.4958069547078701 7.5629502100588173 -2.2800264126022092 115 117 116 2.0615550659420876 73 188 67 360 74 117
4932 0.050987433206856975 1.0423658650351346 0.79890707590542465 81 90 93 1.5338839150497776 76 508 77 359 75 523
4934 0.16490138368492469 1.0232548890272903 0.71512083583813935 125 126 120 1.1048177838045921 77 600 75 527 74 211 73 276 67 330 70 266 71 309 69 392 72 229 66 425 61 444 68 435 64 657 60 625 62 535 65 509 59 582 63 710 58 835 57 757
5873 -0.39516114771141858 1.5030399280754103 1.0033934694564934 202 177 179 0.70447903516225763 67 992 71 1042 69 810 72 650 66 973 61 973 64 1155 60 867 62 877 65 770
4935 0.26908135277886036 1.0347448660200975 0.49276429138564204 48 46 33 1.0331122417385179 76 446 77 591 75 531
7414 -5.7701929880401881 7.4981609000939686 -3.4795195031880928 118 123 126 1.782434830235037 66 446 64 624
4936 0.031057953586330036 0.98565086416216219 0.87220891708503645 144 146 143 1.172698630203834 77 593 75 532 74 470 73 552 81 552
11973 0.40886495403572476 1.2464151678277298 6.6047109313296444 11 11 11 1.5840991535826066 15 140 18 146 16 96 17 187
4938 0.0071636411781594725 0.98332686643886691 0.85257858205409265 148 150 147 1.076583717249666 77 588 75 536 74 380 73 467 67 581 71 560 69 388
4939 0.18391487087497121 0.98435732041700075 0.66219606083281835 190 192 187 1.6203820364283328 77 693 75 538 74 378 73 470 70 370 71 332
5370 0.054926322066318777 0.96408941582470387 0.75047169568248406 203 206 197 0.79512775606823716 74 531 67 434 70 335 71 229 69 340 72 309
4940 0.00062717084802582342 0.97274528050088471 0.83195868466560885 140 144 143 0.54571670863391719 77 586 75 539 74 527 73 560
5887 -0.81077298560772193 1.7791087748870589 1.4635672072923365 157 155 142 0.049268377656422259 73 183 72 141
4942 -0.030207281999773232 0.9639680590084706 0.7496142568226366 127 126 118 1.7616702789548633 76 523 77 581 75 542 74 371 73 401
5881 -0.34429582087413285 1.7455307247906549 1.0967132393799499 49 40 41 1.541181898036591 70 59 71 50 72 50 68 119 65 91
4943 -0.21601996272928406 1.7726791490838449 1.3134604739469551 29 24 28 1.0830070670540208 77 415 75 546
4946 0.45622241306056632 0.94555549282308415 0.61560991843746182 102 97 109 0.12895784078685724 77 707 75 560
5155 -6.2654402959989115 5.0941851648488763 3.0418321034893792 139 139 131 0.2677501134018655 77 979 74 699
4947 0.3372692523660063 1.0165765858799676 0.50467669101367896 0 0 0 0.9532063059028657 76 501 77 596
5314 -0.21479049106117382 1.6888425680692569 1.187125749928009 89 90 95 1.2649726832899899 74 836 73 964 67 1002 70 965 71 793 72 698
4950 0.14099317995070804 1.0675533683344962 0.8635923124226218 84 81 74 0.96737298745102651 76 466 77 1153 75 580
7207 -0.13974888558414741 1.8119414619261209 1.1667121867809651 30 31 34 1.633205753023673 61 398 66 380 68 402 64 578 60 515 62 377 65 507 59 455 63 555 58 566 57 662
4951 0.14720080834220381 1.0616832461894514 1.029555216590889 81 93 107 0.69895554965533857 77 768 75 591 74 490 67 787 69 532
5668 0.092592419077466862 1.0329470047611131 0.73408663463622814 77 75 63 0.59255141693756563 70 344 71 310 69 391 72 163
4955 0.16100590013500782 1.0722521735533472 1.0411523994663716 238 247 255 0.75892482547350715 77 775 75 597 73 766
5322 0.07887850810855293 1.0307729020755101 0.84665707014316904 174 187 195 1.3387602887390464 74 933 73 1099 67 1042
4958 -0.31551104834151267 1.5566308062605085 1.0290318870602844 96 65 66 0.81347690853639554 77 638 75 629 71 487 66 694 61 734 68 656 64 950 62 891 65 748
5833 0.067024735268730318 1.0215296476288922 0.83385141358397663 128 120 117 0.21655680784998221 73 317 69 350
4960 -0.31718833105191824 1.6063342479307032 1.0682317736700568 76 72 69 1.4952907060465765 76 586 77 919 75 636 74 649 73 600 72 601
4962 -0.30663184403988769 1.6417599473057871 1.0815667356128409 102 98 97 0.45684875680277243 76 415 77 929 75 641 74 657 73 801 70 946 71 692 72 522
7837 -7.8140072729217582 10.04387568380586 -5.3564714815624015 0 0 0 0.090952752440632501 61 452 68 513
4963 0.40576925792786844 1.4543399259244456 0.85076490505289215 127 122 119 1.3401787755025492 76 563 75 644
5266 0.028722533288901793 0.98815976639622694 0.88266140635152524 123 134 134 0.41424418862316642 75 559 73 551 67 571
4964 0.42896087478072442 1.4498377379577942 0.87347832815636972 185 185 177 1.0036496370532708 76 570 75 646 67 472 73 633 70 531 71 420 74 587 69 503 72 421
5783 0.25872742789945347 1.1501912176124529 1.166618684180238 147 162 170 1.3473145219931615 73 791 67 621 70 595 71 942 77 1315 75 1010 69 697 72 600
4966 -0.23027971785537263 1.6983895159000022 1.2186607229355144 85 84 86 0.58878166384059338 76 534 77 941 75 656 74 584 73 685 67 668 70 560 71 608 69 604 72 536 66 894 61 726 68 700 64 1003 60 910 62 634 65 376 63 845 58 565 57 493 56 415 55 715
5777 2.8023495787033115 -0.29718186549839665 1.9995245063761764 170 155 171 0.81940079852244241 70 232 71 1122
4967 -0.25146657195128524 1.7754099063239772 1.0977074172892134 93 90 95 1.5013300665227778 77 504 75 659 73 626 74 579 67 842 69 754
7318 -6.0058852399313718 7.2980657285057902 -3.509150617162665 106 110 113 0.94315960771916318 66 439 68 497 61 437 64 602 65 429
4968 -0.22074841298175679 1.7203579772969237 1.2650746283163887 115 115 118 0.91800352697296028 77 959 75 661 73 693 67 720 70 811 71 724 69 736 72 561 66 1069 61 1047 68 1081 64 1065 60 968 62 929 59 917 63 945 58 788 57 829
7835 -4.3725850991317889 6.1042572629348024 -4.0748269238871915 129 133 136 0.62938170254179193 61 327 66 236 65 300
4969 -0.23543607088369037 1.7178095551601025 1.3112239354745658 45 43 46 0.88498069414884806 77 733 75 662 73 648 67 686 70 573 71 618 72 544 66 381 61 716 63 538
4970 -0.17868234566635677 1.7322796412335624 1.2561106643022077 88 88 90 0.54032564548299522 77 750 75 663 73 651
5274 -0.27083361423423202 1.6801789644299077 1.2687973521656413 122 113 116 1.1371709967692178 77 935 73 628 67 665 70 797 71 714 64 1004 60 913 62 808 59 912 63 939
4974 0.055196286280874467 0.96600574515157711 0.67812990749195678 170 170 168 0.68483163483334963 77 685 75 679 74 532 73 569
5785 0.27045325126195557 1.1586010530415323 1.1631540388316113 135 149 157 1.1794248153282911 75 729 74 861 67 966 70 894 71 851 77 511 73 598 72 654
4975 -0.14319930201903819 1.756926201909244 1.2854323655647693 86 83 85 0.62347068471184774 77 978 75 680 74 691 73 701 67 898 70 1003 71 735
4978 0.41085160613189403 1.410259213122985 0.85898209918665325 159 72 84 1.6426898142769628 76 790 75 701 67 1083 74 779 70 1101 66 1659 61 1310 62 1191
7917 -4.1047339584698932 8.3533089078047809 -4.1713054065756552 76 75 70 2.6822430926593439 62 389 59 506
4979 -0.37492246309547511 1.6013616486596749 1.208820968379531 50 48 51 1.1085394499408634 77 1038 75 705 67 827 70 776 71 464 69 691 72 520 64 989
5346 -6.2087338504020542 7.5090058338160963 -2.1679404215205684 40 60 84 0.74426099294242465 73 225 67 169
4980 -0.31813696508994815 1.6212085389000774 1.0756438018170813 76 71 68 1.4429326075502842 77 922 75 706 74 652 73 604 72 515
5863 -0.1554013973827838 1.8064883261777809 1.0980334827334364 93 89 93 1.940291116998619 7 301 10 317 1 342 82 500 80 308 79 262 75 545 77 417 74 401 70 813 69 610 67 721 70 994 71 869 3 186
5857 0.27270417579257628 0.64910994084629048 0.87548384438817983 144 146 143 1.2391582081500681 73 299 69 775
4983 -0.35193268173001968 1.525664580178459 1.0251386340691584 172 152 151 0.79089340651683115 77 739 75 716 74 498 67 528 70 494 71 494 69 562 72 498 66 608 61 649 68 650 64 731 60 729 62 589 65 616 59 656 63 588 58 547 57 469 56 393 53 650 49 641 48 630
4984 -0.22232146784158069 1.7177535265921859 1.2576261615752482 93 91 94 0.41441599189549533 77 958 75 718 73 718 67 719 70 810 71 723 69 735 72 560 66 1065 61 1042 68 1038 64 1248 60 967 62 1055 59 914 63 942 58 1060 57 872 56 767 55 877
7915 0.18142122290365975 0.98644861810138451 0.66220003780166214 218 217 215 0.81298984353119896 60 615 62 418 59 501 63 531 57 285
4985 0.28938347677971676 1.1730284178066919 1.1725906650140829 244 255 255 0.4852523243303794 77 905 75 723 74 872 81 1225
4987 0.26663132599346562 1.1544020900655927 1.1692091032310135 243 255 255 0.78440323659497557 77 899 75 731 74 648 73 794 67 743 70 746 71 653 69 568 72 602
4990 0.18354588208965558 1.0965059556636374 1.0425230529325014 242 255 255 1.6220831957410831 76 634 77 781 75 750
4993 0.12830844243851558 1.0460436176053856 1.0201571208326847 103 112 113 0.20536146998464416 77 800 75 771 74 746 73 759
5654 0.15194344895973189 1.1345033034083269 0.59399006360609918 38 39 37 0.34954071092790001 70 351 71 228 72 238
4994 0.17562845776064473 1.0538767808869507 0.95081185365133625 158 135 104 1.0540738705786399 77 855 75 772 74 742 73 758 70 640 67 547 71 537 69 524 72 450
5139 0.40937238485969651 1.4933172219890414 0.81055570290101842 149 117 118 0.49899411851154857 77 425 74 582 73 629 67 934
11786 6.8745019529258533 2.6004067523269718 7.7586752045952965 14 18 15 2.2564706345595331 32 25 31 18
4997 0.10281255360156108 1.029454348386426 0.9807552506263717 101 112 111 0.78196717095123869 77 730 75 786 74 736 73 749 70 714 71 788 69 682
4999 0.052142042991507688 0.99617064044245596 0.90068844498320377 103 112 114 0.39792274551467421 77 835 75 799 74 722 73 737
5652 -0.41745947197547822 1.7552056455800154 0.98239749158346645 166 162 159 1.6990119830939545 75 116 71 225 76 271 72 126
5000 0.052719562195638787 1.0308243035499647 0.78751067938049535 97 102 108 0.37501548616364694 77 831 75 800 73 835
5001 0.048760289336384724 1.0022917734774659 0.87315592551758014 191 181 169 0.38228514524419754 77 1180 75 801 73 834 67 1039
5662 0.49806864039261173 1.507304750031994 0.84089499188480166 193 193 195 1.0540125512990652 70 455 71 289 72 275
5002 0.42854729848402873 0.96558767170957194 0.53242063792838534 0 0 0 0.62508756397585485 76 526 77 830
5147 0.25869892328766431 1.123872501408705 1.1862131569139036 85 103 117 0.60185098948878568 77 507 74 646 73 589
5003 0.37385263927719281 0.94877164554555649 0.59061968858080505 110 90 95 1.0402181567252231 76 763 75 812 73 466
7704 -0.15356830990221967 1.6580511595385969 0.8852189198653676 215 214 209 1.0480111307074544 64 8 62 14 59 14
5006 -0.17097116173101204 1.7887080999901095 1.1708143315542316 120 120 122 0.76100221417702785 77 1213 75 818 73 980 67 892 70 999 71 980 72 672 74 918
5007 -0.1738733442399665 1.7841485584831465 1.1642220548981546 92 92 94 0.50891304819871208 77 973 75 819 73 888 67 891 70 998 71 911 69 764 66 1062 61 1039 68 1191 64 1213 60 960
5008 -0.17622582763537245 1.8101477390007927 1.0625393540459445 119 118 123 1.8431359053457237 67 675 70 984 71 926 69 481 66 892 68 1203 64 999 60 955 62 797 59 903 63 1243 58 996
5009 -0.22959579886046422 1.7107003496415947 1.234426953756786 119 118 123 0.63920400582167192 77 949 75 829 73 871 67 1013
5734 -0.32272255605821004 1.6263909109886661 1.0860159129070406 110 90 91 0.39441553672754576 70 827 71 687 69 710 72 572
5014 0.15985477817815244 1.0597958162028815 0.95629107316068085 211 190 163 1.1935078772438874 77 1138 75 843 74 744 73 517 67 405 70 396 71 351 69 409 72 341
7271 -0.20620313862630166 1.751374707574566 1.142633744471113 152 152 164 1.0387027189814217 61 893 68 877 64 804 60 905 62 922 65 708
5015 0.16117607635426029 1.0541205927119006 0.97980868838268576 236 253 255 1.1730355916314261 77 1137 75 845 74 943
5732 -0.13279511628651738 1.4595219478646864 0.79396118810487404 20 21 23 0.8548374020929641 70 736 71 649 69 655
5017 0.16934405709721123 1.0964617531243743 0.96543596878991589 122 138 138 0.37658102437373558 77 863 75 852 74 751 73 813
5742 0.15567679727296024 1.0163151562467996 0.74693557173016356 92 90 78 1.1086894191146293 70 697 71 776
5018 0.20475969086016069 1.1171186184155224 1.0047437033676869 136 148 149 1.0780031367236012 76 680 77 1100 75 869 74 957
5227 0.24336762829597472 1.1425730145381596 1.0891225423552888 213 228 235 1.1064457112319317 74 256 73 234 67 367 70 259 71 244 72 248
5019 0.19821623199013991 1.1063206290437884 1.0659100616238191 147 164 171 1.3090346732069766 77 1096 75 871 74 619 73 926 67 991 70 728 71 904 69 807
7784 0.1236816394207714 0.98901444092105051 0.64380942782350925 204 205 197 0.12233284535538155 64 1093 62 972
5021 0.21261681816806677 1.1152565032995236 1.0980764391294813 202 221 229 0.50745293081350107 77 799 75 876 74 771
7778 -0.41327432169325534 1.5026297787241121 1.0422428099602472 139 136 143 0.83000961295088849 64 1158 62 883 59 883 63 900 58 925
5022 0.21649050922027538 1.1261882602566868 1.0740927763101604 167 182 185 0.81324831239756867 77 875 75 878 74 772 73 922 67 987 72 719 70 1183
5023 0.23453561010788895 1.1329921834973096 1.0453726412180759 155 167 167 1.3058015540320971 79 661 75 880 74 967
5026 0.26754365048272954 1.1466447438248146 1.1775611005132349 137 147 157 0.25967326294414306 77 898 75 898 67 969 70 1028
5171 0.23467875142458178 1.1937386854103134 1.119598737294407 102 120 125 1.0354660679169094 77 134 73 912
7901 -3.4942987686776141 8.394571135237074 -3.8425640901847089 73 70 65 2.0568607628077689 60 240 59 269 63 361
5030 0.3007403330069997 1.1669815038355049 1.2044740037107629 153 167 176 0.80816354958843872 77 908 75 914 73 952
5841 -6.0070765298279429 5.4918909010275438 1.6415384273971312 156 157 151 0.25579642215000165 67 464 69 468
5031 -0.37281042573299311 1.5914346179910155 1.2046393153215154 89 87 90 0.9058777228701379 77 1340 75 929 67 825 70 831 71 814
5684 0.27655287808571671 1.1778482828872527 1.1728144546270438 202 216 225 0.28436194014444499 70 418 71 362 72 370
7382 -0.58584695866468384 6.496843345900948 -4.0050011959114116 16 20 31 1.8086754708392956 61 311 66 300 64 346
5179 -0.19031748413245939 1.7950605097176389 1.0845463165370444 96 96 98 0.36460081261174576 77 1204 74 914 67 1014 70 1131 71 970 72 702
5035 0.23990072653970262 1.1321975948124767 1.1245786492980829 164 183 190 0.90523598295768404 76 791 75 949 74 764 73 1034 67 1061 70 886 81 1406 78 736
7736 -0.48974662729479018 1.5527649915101991 0.79517278667642377 92 82 80 0.88577148570753639 60 309 61 274 62 306
5039 0.051969123431008193 1.0065716210456206 0.881540859407413 201 194 190 0.25458437554387459 77 1178 75 963 73 997
5692 -0.47278713535464889 1.7019758825161069 1.3116932409527948 61 56 50 1.0793128049089247 70 450 71 405 69 600 72 278
5042 -0.42725338290370474 1.4396240683023247 0.11499827262515183 78 82 81 1.3916360098575478 77 814 75 971
5123 -0.32898896548134982 1.6700199169363155 1.0612520845791291 82 82 84 0.79804147005563497 77 254 74 429 73 742 70 949
11776 0.048235275671059306 1.0397184897495111 0.79689044145997356 114 100 88 0.44541112130926358 34 178 30 181 31 139
5043 -0.38938474738298029 1.4287801363448442 0.12991169438738201 80 84 85 0.72214900286049488 77 816 75 972
5044 0.19163885727289875 1.1038824217545939 1.0158016465327058 240 254 255 1.4443988431477128 77 1285 75 990 73 934 74 760
5046 0.25925107307015133 1.1409637915376414 1.1684537402142006 151 166 174 0.55929117727305011 77 1313 75 1007 73 985 74 991 71 1150 70 1187
7175 0.69368738671390762 2.2019932223315024 0.41171821935837633 48 48 50 1.1870407188117427 68 203 60 176
5636 0.46501841001566835 1.4596192321466519 0.88957472346730926 211 211 203 1.2307711564593031 70 120 71 139 72 146 61 138 66 122 68 147 65 159
5049 0.3026779272180003 1.1813134734925865 1.1822968738860382 143 156 164 0.59796195057756585 77 1052 79 581 75 1023 74 894 73 953 67 1079 70 1016 71 1047
5646 0.35989570413588595 0.93046923324656161 0.53099210287397125 218 217 213 1.0229405033536068 70 214 71 197 69 334
5050 -0.32449691880276199 1.5908137692914588 1.0880162208582533 150 89 92 1.1428453571832309 77 1047 75 1042 70 923
5131 0.13683730167027322 1.0526229499172786 1.0405562003303637 104 115 115 0.32155136984415122 77 633 74 491 73 482
5051 -0.36348322794049731 1.6575541888147143 1.2158015820777772 69 60 61 0.5153624101678258 77 1028 75 1047 67 1082 70 947 71 957 69 842 66 1495 68 1219
7688 -0.54600522174100685 2.0100537058603876 -0.30068844797283806 13 13 15 2.6505278781041568 64 35 62 41
5053 0.062981730591347929 1.0299787151655486 0.81649092727019967 140 145 157 0.40656226104538057 77 1229 75 1063 73 1098
5054 0.14617256405651008 1.0648043967437415 0.97901987043565664 211 228 236 0.056386637245527726 77 1037 75 1064
5055 -0.17094688957237245 1.2188382527918986 0.28560538301204547 83 85 91 0.64023212480935565 77 808 75 1070
5644 0.12053140690402935 1.0307060408359963 0.83896690031695231 65 69 78 0.65326235550004508 70 208 71 183 72 294
5057 0.11352609601619344 1.0558147098644215 0.95932404316831121 236 230 223 0.60948602465605028 77 1150 75 1082 74 1024 73 1007 67 1047 70 1052 71 1014 72 714
5718 0.14957363217983091 1.0742565504351376 0.89974660681802765 68 68 70 0.95664745008596341 70 637 71 539 72 452
6439 0.30992601611463366 0.96445106248577117 0.55758949109814793 61 65 71 1.6308620795731283 26 646 27 370 29 419
5058 0.12599628785481196 1.0521422571258201 0.98232586528689769 209 226 236 0.43093305878730576 77 1551 75 1084 81 1938
5203 -0.41480334123941703 1.5411594434070748 1.302881861841664 62 51 53 1.8334294950748509 74 28 73 21 67 30 70 21 71 23 69 31 72 28
11850 -0.3721746301157709 1.7686814618287432 0.90778626150631159 0 0 0 1.77129218971981 32 280 38 734
5061 0.39686102315965088 0.88952883303915709 0.54025799195967739 85 88 78 0.5887746776782643 76 649 74 826
5063 0.064164734564246609 1.0269380948940612 0.81945126250470024 148 148 162 1.4768914731511991 77 1228 75 1105 74 1026
5413 0.16970025910895492 1.0919165936760189 1.0194320888332922 168 185 192 0.38847964469101015 73 1021 67 855 70 1040 71 1022
5716 -0.41225285535784967 1.4796416631304914 0.90942016517536661 81 84 90 0.65915369033577109 70 657 72 487
5065 -1.4296216446210481 1.6348710578994257 0.98172625429413818 110 103 96 1.7101162667003655 79 154 75 1130
5726 0.027021465359816459 0.96298889625429229 0.67740092639119143 190 194 197 1.9778439760255937 67 318 71 577 69 332 70 332
5066 0.16154686415257333 1.0846337018222756 1.0138879665228027 160 175 180 0.71042962004964816 77 1528 75 1134 74 792 73 809
5211 0.38470504436093306 1.4317773925914556 0.81981882951156071 69 42 45 1.3746245752373774 74 57 73 80
6440 -0.0023196438585538935 1.0706007503377655 0.61470886734631991 214 216 209 0.61747576675462001 26 481 34 265 30 324 31 236
5067 0.1778795785986215 1.1040561289203701 1.0123905889810223 143 158 165 1.6201584913199403 77 1512 75 1143 73 938
7465 0.22226484054345585 1.1280124527889224 1.0342830707195694 95 109 120 0.3560068176295898 61 974 66 967 64 1260
7768 0.083993283677646968 1.1563914287198285 0.65873130499102361 79 76 71 0.58268326667830916 60 1031 64 865 62 714
5069 0.26133127054502775 1.1472031238261104 1.1179874608194256 243 255 255 1.5397912017234876 76 797 75 1164 74 985
7762 -0.29231668801573379 1.8335447820358659 0.86102456271177485 73 72 70 1.9236870147992866 66 681 62 660 59 1132
5071 -0.3396866166060673 1.6392482812796263 1.1547389016572189 107 107 109 0.59326672341815678 77 1348 75 1183 67 1159
5421 -0.20691116744241869 1.7120256954992281 1.2128656727372815 133 134 142 0.28517955525848043 77 1007 67 945 71 915
5072 0.45627025485963962 1.5030355498855439 0.83065260579022437 140 124 124 0.38235403236405163 79 591 75 1207
5073 0.40344617397249122 0.96305750873874574 0.54280280501375211 26 25 24 1.1139904182639726 76 296 77 187 75 261 6 197 7 169 5 171 8 252 4 149 11 197 10 243 3 252 2 222 1 263 83 276 82 327 80 244 79 201 74 319
5798 0.050767378346686397 0.991787977891607 0.43106449895343801 219 222 212 0.60901911903051331 70 600 71 580 72 316
5079 -0.32084400793771983 1.6252934295455801 0.94965204658298519 102 100 103 1.8074331892096727 77 173 75 107 73 231
5429 -0.23534935414784613 1.7189820047586097 1.1711574393805504 121 122 127 0.5447237926935522 73 965 67 1004 70 1122
5796 -0.2531772016665792 1.5396075724255363 0.89940953480059893 97 108 110 0.15112405218887645 67 986 69 738
5080 -0.42499299092770487 1.2989977043324239 0.14824595208763702 143 145 138 0.17900004097212147 77 305 75 292
5438 0.2356227677574016 1.1340863646249442 1.0744917827408345 177 194 201 0.45175334272311285 74 973 67 1057 70 885
5082 -5.5403876970262331 3.677714160022465 -0.025874808838820009 128 118 116 1.6050911621481541 76 387 75 465 67 598 70 721 71 644 69 642
6456 0.74846929347204916 2.0318185415072127 0.73864984005318146 98 102 103 1.4501428616525698 21 728 28 876
5083 0.19914224447564005 1.0968181594589441 1.0984800841672777 245 255 255 0.21336340838389875 77 477 75 475 74 484
7481 -0.46289645906428573 1.4804604641649106 1.1454558225313656 149 141 143 0.20959361838337198 66 1464 64 1422 60 1283
5085 0.50697971902547445 1.007326702057304 0.65397888237069191 103 108 111 0.4723049782505796 77 743 75 836
6451 -0.42518882825196463 1.3598684384859663 0.1106707540170136 175 185 195 1.1988703113124377 26 461 27 580 28 747 29 600
5086 0.21007471332626917 1.5013516814377543 0.84490493496260866 40 46 46 2.2526956969986336 77 21 74 12
5087 -0.40335427838398669 1.7581034843473229 1.0885365621722773 97 95 96 1.7770439997035681 77 7 73 18
5437 0.09061591299675352 1.0322484174835789 0.91658267449336861 215 203 187 0.95027635664691057 73 1102 67 1043 70 1060 69 826
5804 -1.6344985214622907 2.6109986231633191 0.29332244051202222 27 31 30 0.48773202538096605 71 55 69 19
5089 -0.27668181557890542 1.3091915431493792 0.17075811704373409 97 105 107 3.4999544115210037 77 10 74 41
5090 0.48435798172673239 1.4891983797888964 0.88745189239597067 212 214 209 1.0557591362097523 77 23 74 52 73 39
5235 0.059265631663266871 0.96799846989958238 0.7672518241366546 198 162 126 0.52692577829212328 74 317 73 308
5092 -0.39043688738115301 1.6573041830250961 1.5112850597476444 153 150 146 0.42957988213864917 75 31 74 94
5093 -0.31550407720806162 1.6417469206479998 1.1082848195513668 40 39 37 0.9842522403256837 77 87 74 104
5094 -5.247042216255756 5.2550312312825813 -0.48585501445713997 152 154 149 1.5062559139593565 75 121 74 134
7287 -0.0012631185746349322 0.97086716013512286 0.83351074941086722 84 97 103 0.31625473274267918 66 795 68 1082 64 876
5095 0.33866733045822378 0.93023744507388129 0.59560845212901958 207 210 203 1.512210470385116 75 53 77 108 74 142 73 280 67 387 69 338
5748 -0.40509160591718901 1.5463189422238519 1.1900413552414757 89 84 88 0.60011959918794244 70 916 71 829 61 1003 66 1011 68 998 60 1104 59 901 63 1233 58 932
5097 -0.33258197484828994 1.6902985710229139 1.1058758798323771 98 94 95 0.87524022860248751 77 109 74 168 73 182 70 143 71 138 69 144 72 124
5098 -0.41027330073225243 1.7227624761704989 0.95285684930989056 46 40 40 1.3531122847260191 77 140 74 171 73 186
5243 -0.27621729058883882 1.8603277068093074 0.98499869057821854 129 127 130 0.93015207735000305 74 221 73 369 67 264
5099 -0.067979707118215424 1.1380818859144637 0.74193511779936594 156 155 153 2.1794925921575485 77 197 74 184 73 79
7800 -3.4991405057756464 6.3247233189566705 -3.2915441757513171 0 0 0 2.7984650216051499 60 210 61 383
5103 0.41738178265828046 1.5127120054613004 0.80975977534723409 158 129 131 1.4960651797364832 77 162 74 234 73 375 67 660
5756 0.03172133543832837 0.99210246171928251 0.36596477002087829 192 195 194 1.8484769752167132 70 676 71 903 69 632 72 577
5106 -0.31833518324776811 1.8305934771690431 1.0024215954579874 89 79 78 1.6071077167034744 77 271 66 285 74 273
5108 1.212065200441949 0.82157214839772796 1.0400733040402763 122 121 126 1.3263140169408412 75 456 74 284
5113 0.0077913049124706188 0.95433851078074117 0.67783394139971997 154 155 150 1.3517355981559298 77 339 74 312 73 303 66 529 61 550 68 556 64 442 60 547
5710 0.39245868478509638 1.451513301498558 0.8101183415202734 145 114 112 0.74632297991860197 70 798 71 478 69 586 72 511
5114 0.080355880413716496 1.0321456878234814 0.8327924696136032 211 224 233 1.2560013830126469 77 316 74 325 73 319 67 335 70 421 69 352 72 235
5195 -0.24705653072719991 1.7476897169723105 1.048855004289641 93 81 83 1.5499577915724141 77 100 74 165
5115 0.14413054749438658 1.0338476664723737 0.8610030524305522 236 208 170 0.14838507471275891 77 294 74 331 73 325
7752 0.018734408916006178 1.0667494102518691 0.27288369818669894 57 55 56 0.97488480761778051 66 245 62 496
5117 -0.2776199738893374 1.5210269311122182 0.96969403487912575 36 19 21 1.3632957360284905 77 240 74 354 73 387
7746 -4.0732287154950093 8.7190336514619702 -3.8984803883061478 19 19 17 1.8339405481575142 64 485 62 437 59 396
5119 0.11439996825731108 0.97656115752263184 0.42443447139197976 224 225 219 1.2985257968418176 77 577 74 366 73 432 70 599
5708 -0.31695519081340151 1.632787586549632 1.0803890294431953 42 33 32 1.4749787490794106 73 799 77 1035 71 468 69 582 72 518
5120 0.074744770723681367 1.2154197377491409 0.63438381891799533 94 92 80 1.3537804600105423 75 147 74 389 73 326 67 561 69 516
5121 0.43645805307508972 1.5154235339884619 0.81968382101966331 172 171 169 0.6303515971116761 77 420 74 408 73 640
6064 -0.53206814212943843 1.610081246139816 0.95881225883777133 121 118 116 1.1845522250686664 21 1349 24 1014 25 851 26 731 27 907
5122 -0.34437594634040436 1.6799950002654631 1.1705171860788244 60 49 50 0.83474465473868675 77 442 74 425 67 492 72 408
5126 0.23529342763538474 1.1335706158464067 1.0658739353861924 245 255 255 0.75710585939512953 75 469 77 489 74 441 73 445 67 606 70 656 71 510 69 428 72 361
5127 0.17336208229129368 1.0431347879631543 0.94207492245908897 231 202 169 0.9393896559958077 75 494 77 625 74 476 73 523 70 394 72 339
7094 -0.3477890344038142 1.6316510018304358 1.1340527360382464 80 76 78 0.661353709277406 66 1351 61 1198 68 1217 63 1235
5128 0.42178721711553369 1.5370600958609879 0.80826136046566954 133 82 89 0.87673477300925606 77 418 74 477 73 643
6587 -0.31643542290829635 1.7804543096878362 0.81419349122444939 158 158 160 3.4560021037165214 21 1925 28 990
5129 0.23513870969252304 1.0897489013337969 1.1295980457420312 84 103 117 2.1108075769452572 77 231 74 478 73 492
6072 0.32952447402083068 0.98349726869342335 0.51070457825580839 103 104 106 0.89981265658895293 21 747 24 1076 25 947 26 867 27 1221 28 844
10629 -0.55272710682752391 1.5096875847523663 1.0377409897008145 98 92 94 1.0154585266900422 41 242 39 301 37 206
5130 0.21932655815913871 1.1144336286467194 1.0697734443341673 224 238 248 0.40952374913806383 75 386 74 482 73 497
6076 0.52309015223223843 1.4907861859688436 0.91709322023739548 225 172 178 1.7951109824650069 19 877 24 1133
5137 -0.29745830942379881 1.8190628940111904 1.0237972675157569 90 86 85 1.3013753440084392 77 542 74 571 73 676 67 933 70 959
6016 4.1869105523474515 -0.1280866757966021 4.6213653563649268 142 131 109 1.4335241098835634 21 214 24 392
5138 -0.27417365726051612 1.8400571351539328 1.0037573021456858 84 76 76 1.7198524899724248 76 601 74 577 73 421 67 442 70 440 71 398 69 287 72 537 66 871 61 698
6541 -0.49122877343680826 1.5409969463941464 1.2183938356707189 92 82 80 1.0781344957552024 27 400 28 247 29 271
5141 -0.21809549778030043 1.7500417722710517 1.1270674360294046 107 107 116 0.77901729746271076 77 549 74 585 73 683 67 940 70 970 71 932 69 686
6020 -0.17044807052036678 1.8672292671579107 0.94856635041857329 86 82 83 1.2807819911387572 21 247 24 431 25 470 28 361 29 436 30 535 31 499
5143 -0.28981843415244052 1.7152815996983739 1.3343802726530036 81 77 78 0.83218818739543976 77 779 74 594 73 409 67 280 70 434 71 394 69 292 72 386
7046 -0.49073082465778223 1.6870250627604459 1.3005932375800251 97 90 87 0.85707411587222948 66 875 61 534 62 355
5144 0.53417060781986525 1.4776658758647536 0.90870699485154216 131 78 86 0.85896698412536787 77 412 74 606 73 398 71 454
6539 -0.21333535188900013 1.4723955498907964 0.90423348089161171 103 45 33 1.1426640744411167 27 895 28 233
5145 0.18827338263365725 1.0916156983520289 1.0679803755450701 142 159 167 0.85755631735111615 75 746 77 1103 74 611 73 770 67 796
6024 4.2446457286973134 -0.24942114242622729 4.944580879638746 134 114 90 1.5768622241871373 21 392 24 509 25 395
5149 0.39951351887408704 1.4493971866230373 0.8159121495198034 149 134 131 1.0068252593595424 77 430 74 675 73 853
6028 4.0248867005353741 0.1159624465664832 4.2877998521998366 117 106 84 0.048228128186981814 24 522 26 319
5150 0.43780987558771201 1.4573957956462462 0.84367505277366384 159 93 102 1.796201694761786 77 550 74 679 73 631
5152 -0.018173222272647782 1.1925753033672537 1.8547881774449893 140 142 130 1.3283513165102763 77 441 74 683
5154 0.15407646223815372 1.0875923186942515 0.9969419191954414 238 252 255 0.77828555872224381 77 862 74 695 73 511 67 538 70 400 69 419 72 346
6493 -0.25666754402627623 1.7782512192617503 1.0876836378075101 189 187 198 0.76991924274043988 21 1927 27 1529 28 1083
6860 -0.27581037573115491 1.6843109492494166 1.3025912491262279 85 83 88 0.59615000951313446 66 555 61 652 68 611 64 1010 60 679 62 610 65 531 59 619 63 545 58 343 57 314 56 326 55 357
5159 0.15713393010352389 1.0618881086258745 1.0597301508463617 107 117 117 0.18183817612724029 77 772 74 753 73 767
7873 -0.80453638366439673 5.1050136328842362 -4.5766189304758571 12 12 14 2.3357006319524336 61 77 65 69
5160 0.16728745745923462 1.0926637740671279 1.028264550552642 215 230 237 1.1817861653646704 77 778 74 757 73 769 67 792 70 725 71 637 69 689 72 593
6491 -0.23073244776605112 1.6913377267635463 1.1803000156037733 171 161 160 0.021068507945905035 21 1631 27 1522
7882 0.20472405972039084 1.173205077902034 0.98039910273734854 69 78 85 1.9048439242515305 68 958 65 785
5161 0.24499604413352533 1.1382913351077195 1.108105869327529 161 176 183 0.8107023576363942 75 887 74 765 73 918 67 978 70 1036 71 1031 69 813 66 1182 68 1124 64 1253 62 1101
5976 0.35116033744804909 1.5261481187703185 0.86701191531609745 30 32 31 1.0863247354085415 20 74 21 71 24 89
6859 0.22408152242246382 1.1242764602246829 1.070895053710236 152 166 176 0.53335575830476689 66 619 61 645 68 638 64 733 60 872 62 669
5162 0.17884729548788142 1.0862267791663509 1.0592842010704304 228 242 248 0.93772265787931663 75 862 74 783 73 935
5167 0.37552246532099026 0.95046374804457667 0.60907028938567098 112 96 96 0.29367955402329238 77 827 74 823 73 837
5169 0.062235896027530858 0.96595042155385791 0.69800290782832164 192 197 193 1.2591380180368843 77 811 74 825
6048 -0.52526290750682991 1.46188306295904 0.77430593202883535 37 29 36 0.22093954790724663 19 875 24 864
5170 -0.3201128216869964 1.5932494505684802 1.0609056313356369 115 105 104 0.46830054140326655 77 1051 74 856 70 919 71 827 72 642
6876 -0.21093185748598722 1.7138018357727713 1.1955827644656756 118 118 130 0.71331239032715499 66 895 61 684 68 1204 64 1002 60 685
5172 0.26516027628132738 1.1403058086632982 1.182581808809652 146 161 166 1.293588006696252 76 799 74 858 73 909 67 970 70 892 71 1037 69 698
5175 0.27891612713211178 1.1561327056517952 1.1886908263971092 204 217 226 1.2415750606088221 76 695 74 867 73 948
7078 0.24959057567993725 1.0069301820641861 0.59261474024815053 175 176 171 1.0670419653044496 66 1266 61 1154 68 1076 72 584 71 766
7889 0.42507269472641396 1.1617826250259127 0.33663560226130707 21 23 22 0.17476920778503702 66 227 59 95
5176 0.28747618385656454 1.1698962055212569 1.1838076866072842 229 246 254 1.4277561880997074 75 726 74 874 73 903 67 902
6571 -0.47044369752901466 1.4910573895924943 1.0284763763040825 148 132 133 1.366503134746073 27 922 28 585 34 593 32 483 30 521 31 555
7898 -3.8212208723937064 8.4354996973217169 -3.8985499533736281 82 78 75 1.5120729904669048 62 267 59 215 63 366
5177 -0.29718840646050604 1.8427269644568605 1.0186538429169167 96 85 87 2.1031918024378538 77 942 74 888 67 1094 70 1218
6056 -0.3634217983961357 1.7633960373054085 1.0648230821962885 85 75 74 1.0292861834757727 21 715 24 907 27 652
6875 0.39664013999695819 1.4529704868225608 0.8955781921525704 153 130 122 1.3869157342365825 66 571 61 683 65 354 68 510
5180 -0.19895946790268607 1.7260483974489187 1.2166111111086175 112 113 123 0.82588070846194539 77 1135 74 915 67 1021 70 1136 71 973
5181 0.13835298048872532 1.0586785824932459 0.99217651537230889 218 231 239 0.16491025140375862 77 856 74 942 73 819
6060 -0.39327742426750623 1.4366054149541052 0.11694133929177371 52 64 60 1.6279675947227397 21 634 24 979 25 701 26 537 27 807 28 805
5184 0.18091568985784362 1.0878229389856504 1.0537579820992917 173 188 195 1.5794789672936538 76 809 74 955 73 1024
5185 -0.35271646458837863 1.5139909753234306 1.0200888193086657 141 101 102 1.2884985780915315 76 705 74 968 72 726
6128 -0.046209144322305169 1.0421509094644552 0.36798465374729711 255 250 221 1.1192936919842815 21 76 25 71 26 63
5186 -0.35864070352770655 1.5392019244323958 1.0319281940249316 120 90 91 1.792552309299885 76 706 77 1314 74 974 69 865
6653 -6.2563833971083964 8.5368289945251234 -3.7473583700437079 98 98 96 1.8178134287346941 67 487 66 466 61 466 64 450 60 553 65 453
5189 -0.31916316322262145 1.5840338562110592 1.0456985859581214 127 114 114 1.2357682662521803 77 1058 74 990 73 1062 71 1058 72 729
6132 -0.074590893484352425 1.1099378380584155 0.32663553608113993 101 103 112 1.2101640916413592 24 187 25 99
5190 0.26802288052800616 1.1538359612089601 1.1458723114877161 183 200 208 0.48772373235644628 75 1168 77 1073 74 992 73 1046
5191 0.26229854036558092 1.143409810207701 1.1648415631580622 202 219 226 0.38387272465206557 75 1008 74 1041 73 1072 71 1141
7158 -6.3940553653233119 6.0918233225993417 -5.1754107795555253 80 75 70 0.88644497379519704 70 72 72 64 68 102 71 81
5192 0.267072438298465 1.1547264355964424 1.1596535226414588 192 211 217 0.77507647612367059 75 1012 74 1043 73 1108 67 1073 71 1038
6651 -4.0367696091173411 6.2616927728964207 -3.8966858285178945 95 93 94 0.87058824493972642 70 466 66 432
5193 -0.26157328420524906 1.5709969245763802 0.94768252616069282 52 53 55 1.5257121847168567 77 1453 74 1069 73 1056
6136 4.5840413481984159 1.5506855552900469 5.1774437239691267 93 77 62 0.35232864962775445 24 126 25 127 26 95
5194 0.050496804001743757 0.98548308752473301 0.42902682647718998 92 95 92 1.5694484963725877 77 337 74 290 73 575
5197 -0.19776394175479428 1.2013360286600752 0.19435304104228779 77 82 85 0.28756991188781234 77 307 74 303
6140 -0.29965562292175169 1.8351452166439561 0.87418080321898428 63 52 48 2.2785997194246237 24 247 25 151 26 136 29 96 32 110 34 123 30 93 31 93 28 103
5199 -0.3263458175178191 1.5825603559270744 1.0823012120698854 161 150 146 2.0686449786038135 77 515 74 434 70 517 71 429 69 442 64 968 59 1137
5200 0.24412459265218567 1.034324001004699 0.66500805892035764 121 121 111 0.6877896210845833 77 710 74 723 71 556
5921 0.52308014499442745 1.0097205375921425 0.4311201094201591 130 131 135 3.1395035488491878 74 291 72 210
5205 -0.1898843988880479 1.8387416636436329 1.0116600996684351 131 134 144 1.0181057552035349 74 25 73 30 67 29 70 38 71 32 69 40 72 35
6084 -0.28138991284686271 1.6874826704201589 1.1897702992067223 179 169 169 1.7661938822500449 21 677 24 1278
5208 0.12408254963252485 1.1483294713115115 0.74983038188975137 58 69 66 1.2722444583689125 67 50 69 58
5929 0.085823986747948014 0.97264339486118723 0.45213442523216196 206 206 204 1.4719955781888612 75 49 81 122 78 143
6603 -0.55249393627187138 1.8492174111514146 1.3272568440390315 39 39 38 2.8374187661366581 25 57 29 53
5213 0.28807943594525215 1.1831019934191032 0.80643639900689112 90 100 102 1.3462004210858165 74 82 73 92 67 86 69 87 71 123 72 101
6092 0.31660249911236049 1.450047420984119 0.79744677374568285 151 67 77 1.6795975948949129 21 1731 24 1524 27 1108
6434 0.096395953622566741 1.0313688058210686 0.37089611158085917 249 248 243 0.960228057455353 26 257 27 308 28 450 29 422 34 731 32 550 30 651 31 635
5216 0.45435255866398977 1.4661805771546665 0.91220358271432633 35 36 36 2.4446487105777845 74 122 73 122 71 803
5217 -0.10437164742768493 1.1426426318689533 0.27240890152068514 234 205 172 0.35215683634791067 74 124 73 134
6032 -0.14195507984930844 1.4550336670458675 0.74520698361318127 23 23 23 0.93019169962802239 21 296 24 542 25 282 27 256
5218 -4.7466811533912523 4.811677179762941 -1.7130044081736155 146 151 155 1.1586543291807774 74 125 73 140 71 110 72 128
5219 -4.7592984560331626 4.8141396042923503 -1.6359859871836426 22 22 24 1.355264222112017 74 145 73 142 71 140 72 127
5221 -5.3818459302843236 5.4995764665662179 -1.9808431186515345 78 76 78 1.2992500803190605 74 86 73 148
6036 -0.54200008256803234 1.6095811298764049 0.96648335989734024 80 77 77 1.1492890281885568 21 435 24 610 25 509 26 411 27 353 28 411 29 400 32 325 30 439 31 413
5223 0.13541566152731188 1.0797798911497012 1.0102588178749903 229 246 252 1.2637566598581815 74 154 73 156 70 190
7062 0.12854229474426573 1.0429723470251431 1.0029167220432866 117 129 141 0.59123977455030396 66 1362 61 1123 68 1218
5224 -5.9712049400807992 4.7570318633219024 2.4224384020600507 131 127 116 1.7907888983027709 74 106 73 165
6040 -0.14856073890864555 1.430055793001656 0.73559496045297623 58 60 57 0.28713359610655192 21 415 24 631 25 442
5226 -0.36947601640714384 1.6856697370818805 1.2794166636718762 101 91 90 0.53869206264981229 74 239 73 218 67 157 70 158 71 217 69 176 72 142
5229 0.40411689530685019 1.1252089391097357 0.64871956629082128 79 87 90 1.1356224776602106 77 383 73 256
6044 -0.37973493988122142 1.4328062373810684 0.12466613512066274 118 124 124 0.47627825469301471 21 633 24 736 25 699 26 539 27 569 28 806
5231 -0.0089263895641885794 1.0029654899502096 0.70638012625656088 203 204 198 1.4919091921934433 77 235 73 282
5233 0.089337846176583247 0.98925757190736807 0.5074176945547233 224 222 220 0.67417949948375122 77 226 73 287 70 329
6112 0.17654678016118069 1.0407059794834157 0.36794992152670764 202 202 194 1.6173070703005303 21 267 24 1047
5234 0.16633493045706976 0.97519652613534114 0.64317405338313716 217 217 209 1.2091837727859469 74 376 73 306 71 574
5237 0.11262303610414866 1.0484954278186858 0.96818045307776268 184 196 205 1.561784432936733 74 466 73 329 67 344 70 246 71 235 69 359 72 241
6116 2.3464614186372543 1.0872800342227471 2.971966130415038 26 26 24 3.1809992684631112 21 0 25 0
5238 0.31040131378285651 1.2327167271341692 0.88510726503520532 159 158 154 1.9337775276264202 74 161 73 345
5239 -0.42628448960979443 1.5509705834134022 1.2166475321535506 105 99 99 0.91058056665312925 75 630 73 351 67 246 70 274 71 258 69 258 72 264
7142 -0.67251074958176749 2.3120305791349347 0.10412101987176074 74 74 72 0.24124626115178471 61 2 68 1
5240 -0.32074035200033979 1.7591424127480728 1.0999734868074393 96 86 85 0.47906510756356829 74 241 73 361 69 280
6635 -0.39801540900547167 1.4933719608436369 1.0075185605186343 38 38 40 1.6024404823066754 27 560 34 342 31 183
5241 -0.28394039227531176 1.7035236179102564 1.1531221900857975 99 86 86 1.944856066685988 74 240 73 362 70 452 67 158 71 599 69 281 72 404
6120 2.1224733552135713 -0.81892907408802096 6.631648128625053 130 100 76 1.6870489581919552 21 35 24 32 25 40
5242 0.40432938476415797 1.4553193787285528 0.85851914122281137 132 129 122 1.1686569711897239 77 543 73 368
5248 -0.054309494872441105 0.97107619274723633 0.75898849033200355 159 158 153 1.3098715246651074 77 1581 73 402 67 379
5905 -0.30647967246376939 1.50987797138877 0.84205629460753006 141 147 147 0.51200560505379289 70 661 72 655
5252 -0.22321938399530381 1.7504895713627848 1.1408157194229283 147 147 155 0.97006369016683835 74 586 73 415 67 667 70 561 71 769 72 554
5253 -0.1919558778911995 1.8226397717921221 0.9734486660009305 93 91 96 1.9568347228984648 70 558 72 539 71 716 73 418 74 678
5254 -0.29221453778470746 1.7899289253486701 1.0875320654566178 127 116 122 1.8096787864058428 74 416 73 423 67 476 61 701 64 591 60 506 62 370 59 465 63 429 58 558
6935 0.27555498188206506 0.98964038281074407 0.51338518965357183 169 165 164 0.90632040681255921 66 1104 61 839 68 1065 65 695
5256 -0.70979578028536006 1.7284583673375113 1.5353985473106182 158 157 152 2.7821607334225602 74 243 73 430
5259 0.10679550228411046 0.99635958270177749 0.73562764358558574 107 110 103 0.74214481863786097 74 379 73 468 67 582 70 372 71 338 69 385 72 327 66 539 61 567 68 572 64 650 60 623 62 533 65 574 63 663
5260 0.34469849706723982 0.93746845762863662 0.55061109062104185 97 103 103 1.5127465845543744 74 374 73 472 67 385 69 634
5917 -0.28455140488383807 1.8064534353308161 1.027322148264316 66 57 58 1.2939617335792308 70 57 69 45 72 48 76 86 75 38 71 52 81 219 66 51 68 118 65 76 78 265
5261 -0.030060903827071692 0.96042190038403075 0.79173475037702645 160 159 155 0.40022561187854744 74 469 73 473 67 593
6418 0.050767828569152518 0.9625809994687996 0.68916767831547976 254 255 250 1.0487924560335289 26 177 27 141 28 110 29 156
5264 0.22792524425309715 1.1083324330505371 1.1461691134393606 87 106 120 1.0007194957945507 74 633 75 608 77 491 73 491
5985 4.1841846451555567 0.19381745482722668 5.0487318376010615 55 64 63 0.86607373671702248 21 162 24 163 25 170
5267 0.31047019915187524 0.93326003397139712 0.53726131082997097 101 106 100 0.57999888518978449 74 705 73 568 67 527 69 664
5268 0.061572141046386614 0.96247289276959824 0.66629074065962912 150 152 148 1.4968844665778924 74 369 73 571 71 234
5989 1.4787379519215367 -0.64156512321925396 7.9955127058072168 204 209 213 0.90337073459904749 21 86 24 171 25 112
5272 -0.27770527724416405 1.8365672982211534 0.94626995470555653 109 107 110 0.79483141712006444 74 570 73 618 67 649 69 599 72 533 66 867 61 877 68 742 60 892 62 781 59 829 63 824
5993 0.93165091992547744 1.7652936260880154 1.6180179302688129 254 255 253 1.8649007516796656 18 224 24 190
5275 0.48769722870689092 1.4633216655375405 0.85725245247040893 158 137 137 0.86784540400276799 74 600 73 645 67 711
6504 0.7703804035919386 1.7524421511596344 1.9033905604958747 26 24 22 0.60183262159020479 26 243 27 246
5276 -0.16445632523346257 1.7884511837138553 1.0972898478788868 101 101 103 0.88003939804232678 74 472 73 646 67 678 70 809 71 946 69 732
5997 0.21588410517867573 1.9337234188344683 -0.56469605157691982 100 93 76 1.2393378408458569 21 130 24 264
